ply
format ascii 1.0
element vertex 803
property float x
property float y
property float z
end_header
9.27859115600585938 9.36794948577880859 10.7376537322998047
8.61860084533691406 8.87081623077392578 9.77343368530273438
9.94844818115234375 8.71315288543701172 9.63226699829101562
9.86932086944580078 12.4610834121704102 11.8448629379272461
9.81706809997558594 12.2073841094970703 10.9785833358764648
10.6635942459106445 7.42678308486938477 8.79226970672607422
9.59983634948730469 9.64330959320068359 9.76459598541259766
10.8646669387817383 9.69187736511230469 9.20929622650146484
10.4582090377807617 10.2910680770874023 8.7949676513671875
10.7857646942138672 7.52385330200195312 7.99045133590698242
9.1116180419921875 9.44433784484863281 10.2060279846191406
9.45183563232421875 10.6905717849731445 11.5018062591552734
7.41417217254638672 11.0036783218383789 12.3582448959350586
9.31581878662109375 8.36663055419921875 9.11249446868896484
10.4224691390991211 9.57108402252197266 9.23316287994384766
10.8058576583862305 10.1348409652709961 9.50661182403564453
9.18883228302001953 9.46790122985839844 10.6240682601928711
8.85227584838867188 13.5450201034545898 12.7796821594238281
11.1857538223266602 9.16321945190429688 8.75117588043212891
10.553980827331543 8.47905445098876953 8.76451587677001953
10.1407012939453125 9.62601661682128906 9.93638896942138672
8.60884284973144531 9.89846420288085938 11.4680213928222656
10.0719337463378906 10.2106447219848633 9.76296710968017578
8.23623180389404297 9.23598957061767578 11.7242984771728516
10.1723117828369141 10.9726734161376953 9.65719223022460938
8.88492774963378906 10.0138425827026367 10.1774187088012695
9.32818412780761719 13.9543094635009766 12.2453842163085938
8.83571624755859375 11.9911308288574219 11.9953670501708984
9.29967689514160156 7.40541648864746094 8.58252525329589844
10.4639015197753906 9.68831634521484375 9.61896038055419922
8.85094642639160156 11.6553163528442383 11.4646816253662109
9.6126708984375 14.7419137954711914 12.8629560470581055
10.9904241561889648 12.5788078308105469 10.1097278594970703
9.57712841033935547 11.6732883453369141 11.1306972503662109
9.96251487731933594 10.4188671112060547 10.8706636428833008
9.80992698669433594 11.5877475738525391 11.539240837097168
13.5262727737426758 7.3794550895690918 5.02614879608154297
12.2056074142456055 10.1018390655517578 8.34256935119628906
11.2795562744140625 9.29376888275146484 8.61064338684082031
10.1629514694213867 7.05049562454223633 9.00402641296386719
11.0621681213378906 10.5770702362060547 9.18212795257568359
9.71703243255615234 12.7311525344848633 12.1047811508178711
10.2409639358520508 10.0435285568237305 9.16063213348388672
9.94941234588623047 10.1520719528198242 10.2723245620727539
11.2631006240844727 9.76856422424316406 8.8160552978515625
9.94602203369140625 10.8322086334228516 11.0410776138305664
9.53095149993896484 11.3841428756713867 11.3837175369262695
10.9298162460327148 10.0670080184936523 9.55342769622802734
9.3445892333984375 9.50959682464599609 9.95527553558349609
10.6365470886230469 7.38961458206176758 8.42319107055664062
10.4165105819702148 8.45190906524658203 8.37806320190429688
9.72780513763427734 10.3383674621582031 10.5303821563720703
9.38753890991210938 10.0335464477539062 10.5840997695922852
10.5809316635131836 6.94620609283447266 7.42748117446899414
8.28802394866943359 10.3763875961303711 11.5232582092285156
9.50500583648681641 11.413487434387207 10.7532482147216797
9.93120193481445312 9.60208988189697266 10.1118669509887695
10.2786130905151367 13.2646417617797852 11.4992132186889648
10.7572822570800781 7.80790615081787109 8.34736442565917969
11.4046459197998047 9.9193878173828125 8.08466815948486328
11.6145505905151367 10.8854160308837891 9.24932384490966797
9.83445930480957031 9.14412403106689453 9.54595565795898438
9.42713165283203125 10.1280879974365234 11.0047311782836914
10.2870311737060547 9.02323055267333984 8.61625766754150391
9.08454704284667969 9.4181976318359375 11.2822084426879883
8.98271656036376953 7.24333763122558594 10.0282278060913086
9.81728076934814453 8.94576835632324219 9.28126621246337891
10.3607282638549805 12.0698909759521484 11.4504213333129883
10.1348857879638672 7.49668312072753906 8.48293113708496094
10.7075214385986328 9.40845775604248047 8.79330158233642578
11.8240280151367188 9.56871700286865234 7.93273496627807617
10.710444450378418 11.2291717529296875 9.2227783203125
11.8599424362182617 8.80761814117431641 7.40210294723510742
9.59959030151367188 12.2784881591796875 11.1125936508178711
9.82644939422607422 9.1225433349609375 9.14861297607421875
10.2443304061889648 10.4302301406860352 9.92203903198242188
10.5902376174926758 9.99230384826660156 10.4656257629394531
10.5130739212036133 8.54759693145751953 8.58211231231689453
8.76589202880859375 8.81784439086914062 10.2452230453491211
9.16065788269042969 9.29034423828125 9.85451889038085938
8.94971561431884766 8.85691070556640625 9.74070930480957031
9.62553596496582031 9.72580528259277344 10.2010412216186523
10.7916355133056641 7.85105514526367188 8.20259380340576172
10.446568489074707 10.251373291015625 9.87484264373779297
10.5832586288452148 9.82488059997558594 9.38312339782714844
9.40636920928955078 13.9483938217163086 12.6376981735229492
8.05894184112548828 12.8721303939819336 13.5938301086425781
9.72814464569091797 10.457179069519043 10.0439577102661133
10.1820859909057617 10.9930896759033203 9.64518070220947266
12.5086393356323242 8.70099830627441406 7.12995338439941406
10.3094577789306641 11.8987979888916016 11.1285190582275391
9.79788970947265625 9.04576778411865234 10.156428337097168
10.1428594589233398 10.4889516830444336 9.8135986328125
10.9951505661010742 8.37435722351074219 8.03563022613525391
10.5798425674438477 9.48206424713134766 9.66459751129150391
11.8330049514770508 9.86947154998779297 8.90494441986083984
9.92125415802001953 11.345545768737793 10.4578704833984375
11.4610023498535156 7.7420811653137207 7.7759556770324707
9.94560718536376953 8.91584682464599609 9.71286678314208984
8.69704246520996094 11.916900634765625 12.5540742874145508
10.4448795318603516 10.1188468933105469 10.2015066146850586
6.66243219375610352 8.43977832794189453 13.3351345062255859
9.18197250366210938 9.99460983276367188 11.2795801162719727
10.9720535278320312 10.3584318161010742 9.23191547393798828
9.15657615661621094 9.48418235778808594 10.9530344009399414
10.5064315795898438 9.86470985412597656 9.36813545227050781
9.70337295532226562 10.0589065551757812 9.67034053802490234
10.9040250778198242 11.535980224609375 10.0685710906982422
10.3795928955078125 12.704686164855957 10.6496725082397461
9.97664356231689453 12.2850742340087891 11.2219524383544922
11.3645362854003906 9.59760665893554688 8.69814586639404297
11.2650661468505859 10.1245794296264648 9.29868984222412109
9.29106903076171875 10.8379850387573242 10.8161287307739258
9.40013980865478516 13.190098762512207 12.4256486892700195
9.96936130523681641 7.18010330200195312 8.56462478637695312
9.85284709930419922 9.60141944885253906 9.43115139007568359
9.30730724334716797 9.6735992431640625 10.9947185516357422
9.03613948822021484 11.9913520812988281 11.644195556640625
10.5254058837890625 11.266545295715332 11.0852842330932617
10.2994966506958008 11.4227256774902344 10.3197917938232422
10.2945442199707031 10.1486968994140625 9.48099899291992188
9.99666595458984375 10.5378189086914062 10.4283447265625
10.6948080062866211 11.5798482894897461 9.95905017852783203
9.66715621948242188 10.6894407272338867 10.8676586151123047
8.01426410675048828 12.3105564117431641 13.8062095642089844
9.17732429504394531 12.1158199310302734 11.6479005813598633
7.57904195785522461 9.61771011352539062 11.5625734329223633
8.74384593963623047 10.5879764556884766 11.8653345108032227
11.0085515975952148 8.51324272155761719 7.9473729133605957
9.63340950012207031 13.9155893325805664 11.9206781387329102
10.6894245147705078 8.86718082427978516 9.29233932495117188
10.3795366287231445 8.63515090942382812 8.56746292114257812
9.62080860137939453 8.28396797180175781 8.85262393951416016
9.85932445526123047 9.80678176879882812 9.73423957824707031
10.2740468978881836 9.42468166351318359 9.87577438354492188
10.1654472351074219 9.36802768707275391 9.63715457916259766
11.3977108001708984 9.823974609375 8.86928558349609375
8.90196418762207031 9.55207538604736328 10.9035110473632812
10.0743579864501953 9.32421970367431641 10.0462188720703125
11.2795343399047852 12.7555522918701172 10.1225032806396484
8.55425262451171875 11.7834014892578125 12.0425357818603516
10.0084962844848633 10.3081798553466797 9.91518211364746094
10.0480260848999023 9.66459941864013672 9.78734588623046875
9.61445426940917969 7.22698831558227539 8.80254840850830078
9.67765235900878906 10.0903854370117188 10.3118915557861328
10.8657636642456055 12.1171426773071289 10.5467557907104492
8.79008102416992188 9.80270957946777344 10.6712980270385742
10.5463018417358398 12.335230827331543 10.6960010528564453
11.3205690383911133 6.57395744323730469 6.55402469635009766
8.46380710601806641 12.4163026809692383 12.2305507659912109
10.1702938079833984 10.7819070816040039 10.0395898818969727
8.58128643035888672 10.3607521057128906 11.9910068511962891
9.66996097564697266 9.01552963256835938 9.73895645141601562
9.21143245697021484 10.0991840362548828 10.2978286743164062
10.7822351455688477 8.26635074615478516 7.29771947860717773
9.53549385070800781 10.0242938995361328 10.3299922943115234
10.4926824569702148 8.56586647033691406 8.38244152069091797
8.32606315612792969 11.356419563293457 12.2023696899414062
10.7580413818359375 10.1076421737670898 9.05730152130126953
10.6710529327392578 10.5743188858032227 10.1334314346313477
12.4359130859375 10.6831092834472656 7.9089055061340332
10.2835321426391602 11.5222578048706055 10.8967084884643555
9.54251003265380859 11.7487297058105469 11.298640251159668
9.39904403686523438 9.825592041015625 10.5324487686157227
10.4182329177856445 11.4330654144287109 10.0708208084106445
11.0300874710083008 10.7971067428588867 8.95340347290039062
10.1012096405029297 9.72213840484619141 9.40875816345214844
8.45701408386230469 9.48486709594726562 11.0091133117675781
8.89156723022460938 9.41167831420898438 11.2576961517333984
9.27925777435302734 11.0063791275024414 10.5698003768920898
9.51026058197021484 7.59214496612548828 9.59055423736572266
9.93740749359130859 8.83603668212890625 10.0425233840942383
11.3656129837036133 11.049708366394043 9.03613948822021484
8.90699386596679688 9.49347019195556641 10.6554508209228516
7.09678459167480469 12.7077665328979492 13.8905925750732422
9.96917438507080078 13.1296777725219727 11.4283361434936523
10.1446752548217773 9.75858116149902344 10.2939271926879883
9.37550067901611328 13.4075698852539062 12.0235481262207031
10.6651821136474609 10.5618038177490234 9.76081085205078125
9.16320419311523438 10.8443784713745117 11.0901689529418945
10.9619827270507812 9.48667716979980469 8.19209194183349609
10.9156045913696289 8.80922889709472656 7.68126916885375977
8.13660144805908203 9.90940666198730469 12.1587705612182617
9.94547176361083984 9.81623554229736328 10.509922981262207
9.22778034210205078 10.0693855285644531 11.1781339645385742
9.05880069732666016 9.81016731262207031 10.8314323425292969
10.1773614883422852 12.1427459716796875 10.4932107925415039
10.3940868377685547 10.7063016891479492 10.2342519760131836
9.53830337524414062 9.204864501953125 10.0860414505004883
10.9175100326538086 9.37864017486572266 8.09983539581298828
11.0064077377319336 7.96389579772949219 8.032928466796875
10.6123838424682617 10.5435333251953125 10.7791805267333984
9.23694610595703125 14.0510244369506836 12.7612018585205078
9.46600151062011719 12.3768377304077148 11.7543106079101562
10.081089973449707 10.6799135208129883 10.233210563659668
9.33855342864990234 8.17416858673095703 8.97471523284912109
11.0852718353271484 9.56756496429443359 8.56591701507568359
11.0408239364624023 7.86843538284301758 7.62332916259765625
10.0589580535888672 9.81886005401611328 9.91927719116210938
9.62421131134033203 10.1475811004638672 10.5952978134155273
10.3931102752685547 9.91023921966552734 8.77838516235351562
10.6507816314697266 9.52505588531494141 8.36854743957519531
10.3650302886962891 10.7017030715942383 9.23032474517822266
8.99750041961669922 12.8494720458984375 13.0261611938476562
9.85301589965820312 9.13163852691650391 9.33112525939941406
9.02104091644287109 10.7328605651855469 11.3968725204467773
8.50746250152587891 9.88998508453369141 11.8654718399047852
9.34145450592041016 8.14539527893066406 9.3342742919921875
11.3456707000732422 9.65342807769775391 8.8856353759765625
9.18365573883056641 9.0186309814453125 10.3661575317382812
9.6996002197265625 12.4981698989868164 11.7993068695068359
9.48930931091308594 11.4007883071899414 11.3749046325683594
11.3513193130493164 12.4798917770385742 9.83893680572509766
8.79982185363769531 11.9602928161621094 12.0342960357666016
9.33980083465576172 7.76135349273681641 9.91899681091308594
10.0133895874023438 12.8046121597290039 11.026066780090332
9.66093349456787109 11.1780614852905273 11.0066394805908203
10.4550762176513672 8.78685092926025391 8.806549072265625
10.1379804611206055 11.0306110382080078 10.6014785766601562
8.97488975524902344 10.4384803771972656 11.2842626571655273
10.8397197723388672 9.64192581176757812 9.42604160308837891
10.5142240524291992 8.35892391204833984 9.35273551940917969
9.53361415863037109 12.0482177734375 11.6885709762573242
10.1541671752929688 11.5483245849609375 11.0692653656005859
10.5992527008056641 9.82757759094238281 9.73754405975341797
10.181121826171875 8.5203399658203125 8.95799541473388672
10.7101125717163086 10.4153957366943359 9.43549346923828125
9.53701496124267578 9.5886993408203125 9.95999050140380859
10.3253974914550781 9.88016510009765625 9.80967426300048828
10.3728437423706055 9.828277587890625 9.66482830047607422
9.27891063690185547 9.54891872406005859 9.81653118133544922
9.10071563720703125 10.1411237716674805 10.9245939254760742
10.074305534362793 9.14095783233642578 9.62163734436035156
9.85812473297119141 12.155548095703125 10.9424867630004883
10.1753683090209961 10.2476158142089844 9.68277263641357422
10.2702264785766602 11.4110116958618164 10.8098840713500977
10.1211986541748047 10.0593881607055664 9.81594181060791016
9.75459003448486328 13.3408374786376953 11.5856056213378906
10.1625556945800781 8.95231819152832031 9.40760135650634766
9.33092212677001953 11.3478221893310547 10.8637294769287109
8.51517391204833984 9.38769912719726562 11.098454475402832
10.5755014419555664 8.86619091033935547 8.52651023864746094
10.3781862258911133 8.93919181823730469 9.29730415344238281
8.60792922973632812 9.84124374389648438 10.8814773559570312
9.27042102813720703 13.0073318481445312 12.0628948211669922
7.72189140319824219 13.4464588165283203 13.750279426574707
8.60110569000244141 12.6552305221557617 12.7836217880249023
10.0894269943237305 12.6220054626464844 10.8027534484863281
10.053318977355957 8.91728115081787109 8.54227066040039062
9.25127506256103516 13.9859104156494141 11.9207162857055664
8.9983062744140625 10.2614307403564453 11.5860137939453125
11.7204341888427734 7.31281757354736328 6.77576589584350586
9.46424674987792969 9.27601528167724609 10.5792293548583984
10.5213737487792969 9.96032619476318359 8.32313632965087891
9.50320243835449219 11.1137313842773438 10.622401237487793
11.0324974060058594 10.2260246276855469 9.17463874816894531
10.9463281631469727 7.78561258316040039 7.20233917236328125
7.96175289154052734 11.0351228713989258 13.1455440521240234
9.47326374053955078 9.09232139587402344 10.1762542724609375
10.498103141784668 9.64883708953857422 8.97223186492919922
10.1086978912353516 8.48564815521240234 9.08723068237304688
12.2197179794311523 8.29934024810791016 7.51439952850341797
8.50249767303466797 11.0496273040771484 12.5060958862304688
10.3016033172607422 8.81584072113037109 8.65172004699707031
9.98092746734619141 9.85638713836669922 9.78872203826904297
11.3057117462158203 9.73272418975830078 8.23537158966064453
10.3360280990600586 10.741241455078125 9.90703773498535156
10.4545869827270508 9.36141014099121094 8.54305267333984375
9.90688610076904297 8.18587017059326172 9.45966720581054688
9.63811206817626953 7.6641535758972168 9.47063350677490234
9.85846519470214844 11.0324735641479492 11.0436735153198242
9.66929340362548828 8.21772003173828125 9.09850406646728516
9.88818264007568359 10.3836650848388672 9.59116458892822266
9.51453304290771484 11.7121076583862305 12.0427837371826172
10.8955783843994141 13.156926155090332 10.2254924774169922
9.08446311950683594 10.7225179672241211 10.8587684631347656
9.41994762420654297 12.3206920623779297 11.985651969909668
11.1417045593261719 11.1972322463989258 9.40591049194335938
9.14287471771240234 8.96498966217041016 9.96550655364990234
12.1861228942871094 8.24799823760986328 6.89154338836669922
11.1442899703979492 9.03260993957519531 9.41062259674072266
8.89041233062744141 10.9539318084716797 11.5835752487182617
10.2966499328613281 9.51552200317382812 9.21733570098876953
7.85070371627807617 8.12456989288330078 10.9314346313476562
10.5429582595825195 9.73596858978271484 8.78009986877441406
10.0722999572753906 13.9619855880737305 11.6265974044799805
9.99786949157714844 13.5526580810546875 11.6480817794799805
10.7506465911865234 9.95693874359130859 10.0960054397583008
9.36774253845214844 10.1330232620239258 9.41141128540039062
9.94039535522460938 10.6920452117919922 10.0961370468139648
10.6550045013427734 8.59795856475830078 8.43067646026611328
10.2886228561401367 11.8426618576049805 10.4124679565429688
9.80819988250732422 10.0062704086303711 10.0423250198364258
11.2900791168212891 10.4826183319091797 8.65919685363769531
10.0952882766723633 9.54958534240722656 8.78594207763671875
10.2905139923095703 12.058319091796875 10.3370847702026367
9.58664798736572266 9.10512542724609375 9.84351158142089844
10.2824611663818359 7.411956787109375 7.51414823532104492
11.0173511505126953 7.8877100944519043 8.62512874603271484
10.5984439849853516 9.85362625122070312 9.94434452056884766
9.33279323577880859 9.78264713287353516 11.119654655456543
10.2011146545410156 9.34362411499023438 8.87773990631103516
9.89653587341308594 9.38836288452148438 9.59343051910400391
10.9380693435668945 10.3112087249755859 9.51088809967041016
9.837005615234375 8.94204235076904297 9.75725650787353516
9.75711917877197266 8.61798191070556641 8.76800632476806641
11.4905424118041992 10.1273794174194336 9.44514179229736328
10.891118049621582 10.2181921005249023 10.1941165924072266
12.2990579605102539 10.3048992156982422 8.09522056579589844
9.28681087493896484 9.56758594512939453 11.0639963150024414
9.82632160186767578 9.84067058563232422 9.76216602325439453
10.4430322647094727 10.4275178909301758 10.6664085388183594
9.80392837524414062 7.83700704574584961 9.02061748504638672
9.41197395324707031 11.0309877395629883 11.0485763549804688
9.85119056701660156 7.80854272842407227 8.74235630035400391
10.155430793762207 11.3281898498535156 9.94359779357910156
9.7602996826171875 9.13683319091796875 9.31208610534667969
9.79458045959472656 12.2990436553955078 10.9434070587158203
9.63936328887939453 11.1012411117553711 10.9458427429199219
9.57646560668945312 9.30761337280273438 8.81529045104980469
9.86177730560302734 10.5660161972045898 10.7039146423339844
10.5049619674682617 6.12060260772705078 6.96640300750732422
10.3485479354858398 7.76818466186523438 8.95373153686523438
10.255528450012207 8.44699192047119141 8.980804443359375
9.50636672973632812 10.0794601440429688 9.44046401977539062
8.95492267608642578 11.1919593811035156 11.612701416015625
10.6287450790405273 10.7439804077148438 9.26642322540283203
10.655975341796875 8.80523967742919922 8.49034309387207031
9.66351795196533203 10.6552286148071289 10.7624635696411133
8.88932228088378906 8.12833690643310547 10.7164793014526367
9.79505252838134766 8.7414093017578125 9.71434307098388672
9.85550785064697266 10.5195112228393555 10.2797775268554688
9.63953208923339844 11.1394128799438477 11.5155048370361328
10.6678085327148438 11.6012821197509766 10.9621047973632812
8.88442897796630859 7.24361753463745117 9.97571277618408203
10.6386079788208008 5.72122955322265625 6.98783254623413086
8.93363571166992188 9.76578617095947266 11.3530168533325195
9.89899253845214844 9.21635055541992188 9.26171493530273438
10.5719232559204102 10.6318016052246094 9.14538288116455078
11.3476152420043945 10.1513786315917969 9.17508792877197266
10.4497909545898438 11.6422853469848633 11.0128068923950195
9.75816631317138672 10.2209024429321289 10.2859354019165039
9.51212310791015625 12.6929426193237305 11.9410629272460938
10.4277734756469727 8.86566638946533203 8.51816177368164062
9.96918678283691406 11.1113662719726562 10.8775367736816406
10.0121116638183594 7.12997627258300781 9.04213333129882812
9.57650089263916016 11.9600276947021484 10.7280731201171875
9.58636474609375 13.4590635299682617 12.9187593460083008
11.1958723068237305 9.46373081207275391 8.73308181762695312
10.0277929306030273 9.44029712677001953 9.94583702087402344
12.0560941696166992 8.96049880981445312 6.95216751098632812
11.6654481887817383 9.50959968566894531 8.56836032867431641
10.1924057006835938 8.46917819976806641 9.09139919281005859
8.934234619140625 11.9590520858764648 12.1493930816650391
7.90564966201782227 8.89832687377929688 11.1480379104614258
8.84955787658691406 11.5063610076904297 11.0362758636474609
9.9814453125 9.1780242919921875 9.93572139739990234
10.3765182495117188 9.18855953216552734 8.77743816375732422
9.24860954284667969 8.88965415954589844 10.4826297760009766
9.09292411804199219 7.59075784683227539 9.42455863952636719
10.0287361145019531 9.14431571960449219 9.45617008209228516
10.7952747344970703 7.21379375457763672 8.24235916137695312
10.5846986770629883 7.97110128402709961 8.12746810913085938
11.4586668014526367 9.57430934906005859 7.95178556442260742
8.81371212005615234 15.7665538787841797 14.5482215881347656
9.47055530548095703 7.69919109344482422 9.65110111236572266
10.0692119598388672 8.78873634338378906 8.40872955322265625
9.95002079010009766 11.868377685546875 11.1217994689941406
8.71658611297607422 12.5902948379516602 12.3426609039306641
11.7000112533569336 8.79632091522216797 7.86148548126220703
10.3347492218017578 9.07720375061035156 9.77912044525146484
10.1090059280395508 12.4562244415283203 11.2773313522338867
8.68151760101318359 10.9882068634033203 12.3305559158325195
10.5769109725952148 10.9616374969482422 10.0989484786987305
10.1816787719726562 10.321345329284668 9.63592433929443359
10.6659870147705078 11.6154346466064453 9.79265880584716797
10.4022665023803711 9.96669960021972656 10.6213417053222656
11.1584978103637695 8.02861118316650391 8.01300334930419922
8.93902587890625 10.1149682998657227 10.7524185180664062
10.6784219741821289 6.83082151412963867 7.51294374465942383
10.0890617370605469 9.8093719482421875 9.7935791015625
9.42236995697021484 9.08980274200439453 10.5642013549804688
10.6915884017944336 8.1904144287109375 8.26306819915771484
8.46977806091308594 9.85262107849121094 11.5170221328735352
10.247100830078125 10.1722488403320312 9.28391838073730469
9.38047504425048828 9.97832012176513672 10.6879405975341797
11.2749214172363281 11.4682826995849609 9.61466789245605469
9.93478298187255859 8.08653640747070312 8.98351669311523438
8.34822273254394531 10.0711994171142578 11.9859523773193359
9.96970844268798828 10.0548181533813477 10.4121627807617188
9.02605724334716797 13.2319536209106445 13.1774682998657227
10.1237668991088867 11.6350641250610352 10.6083774566650391
11.0269126892089844 7.79085206985473633 6.570709228515625
10.4619760513305664 8.04467201232910156 9.14612674713134766
10.432795524597168 10.1563835144042969 9.05336856842041016
9.40772247314453125 8.26125812530517578 9.26690006256103516
8.86865043640136719 12.67669677734375 11.7400436401367188
10.3115663528442383 9.28602695465087891 9.24567222595214844
11.1603736877441406 5.99899196624755859 7.32552242279052734
11.3492259979248047 9.70140743255615234 8.23743915557861328
9.88099765777587891 9.59914779663085938 9.21154212951660156
10.9823436737060547 10.0163459777832031 9.29683876037597656
9.62487697601318359 8.95709514617919922 9.23971939086914062
10.6263093948364258 8.96447277069091797 8.28349685668945312
9.63282585144042969 8.52397060394287109 9.38272666931152344
8.9558868408203125 11.5033540725708008 11.5936479568481445
10.7163028717041016 9.55853366851806641 9.64271068572998047
11.2597799301147461 8.23175239562988281 7.33971786499023438
9.18778610229492188 11.672062873840332 11.5119943618774414
9.45188617706298828 9.77379894256591797 10.0408897399902344
10.4363346099853516 11.0714797973632812 10.4661941528320312
9.83984947204589844 8.96338748931884766 9.58403396606445312
10.4468536376953125 10.4592342376708984 9.68005084991455078
9.1640625 11.4352531433105469 10.8648767471313477
9.47957611083984375 9.67814159393310547 9.85170936584472656
9.63825702667236328 14.2647075653076172 11.4242496490478516
9.37467384338378906 10.7282085418701172 10.978515625
9.65082263946533203 10.8752508163452148 9.34972667694091797
11.1771926879882812 6.98685646057128906 7.11247777938842773
9.12968158721923828 11.1766948699951172 11.7784976959228516
10.507807731628418 9.56766128540039062 9.66940021514892578
10.0853347778320312 10.2863531112670898 10.363861083984375
9.54571342468261719 9.81502628326416016 10.2836647033691406
10.6425018310546875 8.51152896881103516 8.25082015991210938
10.3639440536499023 7.16450071334838867 8.04689311981201172
9.39489173889160156 7.56158161163330078 9.59385013580322266
10.2005157470703125 8.03279304504394531 8.47111034393310547
10.6099214553833008 8.03283023834228516 8.30359840393066406
10.0806207656860352 10.6628446578979492 9.99819564819335938
9.64081096649169922 8.45876216888427734 9.97777938842773438
10.5730018615722656 13.4778079986572266 11.342045783996582
9.60329914093017578 9.65708637237548828 10.2125730514526367
9.05970478057861328 9.73859405517578125 10.2374343872070312
10.6555109024047852 8.20945930480957031 7.60827493667602539
9.43980312347412109 11.1154727935791016 11.0677003860473633
9.28079414367675781 11.3378639221191406 11.5228147506713867
10.0423917770385742 9.71651458740234375 9.22976589202880859
10.0990362167358398 9.44389438629150391 9.7095947265625
7.29844474792480469 11.2824983596801758 13.4992847442626953
11.4752683639526367 6.75053977966308594 6.80415916442871094
10.0066680908203125 10.3584184646606445 10.6404762268066406
10.5914287567138672 9.63039302825927734 9.57072639465332031
10.6438283920288086 10.0631389617919922 9.29119777679443359
8.93559837341308594 8.61362266540527344 10.2197732925415039
8.51522922515869141 10.0840215682983398 12.6287431716918945
8.9832000732421875 7.24035215377807617 9.80231094360351562
10.3538722991943359 6.96090936660766602 8.89622306823730469
9.04902935028076172 8.43514060974121094 9.80338001251220703
9.9983978271484375 10.5997381210327148 10.7146844863891602
10.5340900421142578 6.54394674301147461 7.21382331848144531
10.4749860763549805 10.7239227294921875 9.35776901245117188
11.0203838348388672 8.15115833282470703 8.617095947265625
9.59032917022705078 7.72282123565673828 9.03136062622070312
10.1497259140014648 9.72367572784423828 9.38045692443847656
10.7784156799316406 7.76607656478881836 7.74384832382202148
10.2291946411132812 10.150517463684082 9.60800075531005859
8.25517368316650391 10.5377187728881836 12.3030452728271484
10.6936521530151367 8.00409317016601562 8.51200389862060547
10.0392704010009766 9.28667449951171875 9.98421287536621094
10.7672529220581055 8.98023319244384766 9.42908000946044922
9.70088005065917969 8.85273265838623047 8.72253131866455078
10.1608180999755859 8.56113719940185547 9.16449451446533203
10.5582904815673828 11.2110395431518555 9.90581226348876953
10.8959560394287109 11.5178203582763672 9.41887187957763672
9.99787425994873047 9.13722133636474609 9.40444850921630859
11.6965084075927734 10.1761512756347656 8.88397693634033203
9.79234504699707031 9.25255393981933594 9.23711109161376953
9.35408306121826172 8.37494468688964844 9.52072238922119141
8.27181339263916016 11.5281887054443359 13.1870670318603516
10.6011829376220703 8.15949440002441406 8.66394233703613281
10.8264636993408203 11.3827056884765625 9.93544769287109375
8.73873138427734375 11.8945980072021484 12.4905910491943359
9.38876914978027344 9.59094142913818359 10.6964206695556641
9.86349678039550781 8.04095077514648438 9.87412452697753906
12.4864072799682617 11.6310224533081055 8.69409275054931641
9.16062355041503906 8.47207450866699219 9.99859523773193359
10.9325466156005859 7.60702085494995117 8.00579833984375
9.34437370300292969 11.6821527481079102 11.6622648239135742
10.23236083984375 9.23753166198730469 9.11029338836669922
10.9037752151489258 9.95286178588867188 9.00767803192138672
10.7867774963378906 9.93400001525878906 10.0601806640625
8.79953384399414062 8.69333648681640625 10.7693691253662109
10.9533271789550781 11.8721513748168945 10.1790018081665039
9.46786689758300781 8.78855323791503906 10.391911506652832
12.4780731201171875 7.78986263275146484 5.76737499237060547
9.47319316864013672 12.518651008605957 12.5830240249633789
11.8163003921508789 7.83703994750976562 6.65402936935424805
10.0298795700073242 15.3740673065185547 13.6762666702270508
10.4072418212890625 9.0596466064453125 9.18227672576904297
10.6414175033569336 10.222966194152832 8.46107387542724609
10.6407270431518555 11.7628593444824219 9.86818122863769531
9.34793853759765625 13.1848888397216797 12.0705146789550781
10.5469465255737305 10.0709657669067383 9.55923175811767578
10.1140727996826172 8.19086265563964844 8.82313728332519531
10.3373937606811523 11.3543281555175781 10.1539068222045898
10.3931713104248047 11.132777214050293 9.53600406646728516
8.03098583221435547 11.5329904556274414 13.636627197265625
8.73996353149414062 10.2679948806762695 10.6997261047363281
10.1337413787841797 8.90854358673095703 8.17647933959960938
10.9518251419067383 8.62022686004638672 8.22431850433349609
11.9293861389160156 7.88448047637939453 7.17011833190917969
9.04454803466796875 11.1646966934204102 11.5559282302856445
9.94984340667724609 8.48889446258544922 8.87999248504638672
9.80897045135498047 8.55072498321533203 8.44581222534179688
11.1995458602905273 11.8726034164428711 9.63123607635498047
10.5417861938476562 9.51529693603515625 9.33767509460449219
8.14137649536132812 10.2613687515258789 11.9364128112792969
10.1200218200683594 11.335723876953125 10.7073240280151367
8.53471469879150391 12.6937532424926758 11.9554853439331055
10.3775196075439453 6.704345703125 7.38357162475585938
10.1873636245727539 12.200984001159668 11.3339338302612305
11.4876680374145508 7.32805204391479492 7.23913145065307617
9.2381134033203125 10.4166717529296875 11.0488719940185547
11.1670942306518555 6.66493892669677734 7.13472938537597656
9.77943038940429688 9.06221389770507812 8.90584659576416016
10.2954015731811523 10.3130569458007812 9.38692188262939453
11.770721435546875 10.1008195877075195 7.294647216796875
12.0533714294433594 9.07552337646484375 7.3871922492980957
10.3203001022338867 10.9328413009643555 10.0109329223632812
7.94502687454223633 12.892003059387207 13.732813835144043
11.2719860076904297 8.68622779846191406 7.84272527694702148
8.66282272338867188 10.4025888442993164 11.8892679214477539
10.7681255340576172 10.2986240386962891 9.61958122253417969
11.2077760696411133 12.0592432022094727 10.3837928771972656
9.32087135314941406 7.69447040557861328 9.72324943542480469
10.4181575775146484 9.58659267425537109 8.94655323028564453
11.3846445083618164 12.0751762390136719 9.50294303894042969
10.7482967376708984 10.2070865631103516 9.82682037353515625
9.24734783172607422 8.39169120788574219 9.55467700958251953
9.79290390014648438 11.4012641906738281 10.1055278778076172
10.2246265411376953 9.01512527465820312 9.3770294189453125
9.64713478088378906 8.04445362091064453 9.21292877197265625
9.42516899108886719 10.1710414886474609 10.2873363494873047
9.60424137115478516 11.7058649063110352 11.4360103607177734
8.54549980163574219 10.4688329696655273 11.0180482864379883
11.6022520065307617 7.34254026412963867 6.99565887451171875
10.8623809814453125 7.98062944412231445 8.09592819213867188
9.58778858184814453 10.8059024810791016 10.3077888488769531
11.0753917694091797 11.1612100601196289 8.63203334808349609
10.6711225509643555 9.33664512634277344 9.30273342132568359
10.8499221801757812 8.65873908996582031 8.82282638549804688
9.48034095764160156 13.4423160552978516 11.468353271484375
9.97301864624023438 10.2836942672729492 10.0701265335083008
9.69917678833007812 10.8524751663208008 11.0550022125244141
10.1394186019897461 12.1711950302124023 10.1414461135864258
11.0616579055786133 13.0750350952148438 10.3567190170288086
10.2702779769897461 11.220306396484375 10.865656852722168
9.53837203979492188 9.82341194152832031 10.2829551696777344
10.169224739074707 8.98512649536132812 9.81070804595947266
12.0815010070800781 7.74398612976074219 7.43663167953491211
11.7962379455566406 7.83521938323974609 7.7583308219909668
9.56845569610595703 12.2337551116943359 11.5268373489379883
10.6219034194946289 9.739166259765625 8.65096378326416016
9.71856307983398438 11.1988277435302734 10.5887680053710938
9.06951522827148438 9.73043251037597656 10.9428071975708008
9.58393669128417969 8.87408065795898438 10.7947311401367188
10.1919641494750977 9.36594104766845703 8.65443229675292969
9.61357021331787109 8.930023193359375 9.70547676086425781
12.0588283538818359 9.43527889251708984 8.79552936553955078
8.67710685729980469 9.17985820770263672 10.2615652084350586
10.0378761291503906 8.27456569671630859 9.19096088409423828
10.496495246887207 7.63284921646118164 7.93251132965087891
8.85719776153564453 8.30835628509521484 10.5312709808349609
10.4736576080322266 9.22331428527832031 9.36594295501708984
10.0004539489746094 10.3447275161743164 10.2285041809082031
10.5070867538452148 11.1777572631835938 10.5508766174316406
9.96355247497558594 11.7920856475830078 10.1955451965332031
11.1673555374145508 6.95345258712768555 7.18022823333740234
9.62797927856445312 11.503413200378418 10.9460783004760742
9.20737648010253906 11.4665689468383789 11.762578010559082
10.0588607788085938 10.5904445648193359 10.3404836654663086
8.87278842926025391 10.7622890472412109 11.7037353515625
8.35331916809082031 15.6526069641113281 15.07464599609375
8.97588825225830078 10.5564393997192383 11.3437967300415039
10.5075216293334961 8.33599567413330078 8.23401165008544922
9.29872035980224609 12.4113759994506836 11.5281391143798828
11.3260126113891602 7.11568880081176758 7.24726200103759766
10.1632118225097656 6.98456096649169922 7.89809370040893555
12.2392778396606445 8.78375720977783203 7.64839410781860352
10.4602270126342773 10.2731914520263672 9.59574413299560547
8.97756576538085938 8.16464614868164062 9.72879981994628906
9.53592872619628906 10.3781328201293945 10.7470703125
10.2593994140625 8.36670970916748047 9.16112995147705078
11.2010631561279297 10.2842874526977539 8.40289306640625
11.2185964584350586 11.2983179092407227 9.56383514404296875
10.1842889785766602 9.73931598663330078 9.41244888305664062
11.7119531631469727 8.67169189453125 8.56752777099609375
8.80074596405029297 6.81450319290161133 9.76593208312988281
10.1460762023925781 10.989375114440918 9.77607917785644531
9.85145664215087891 9.76620769500732422 9.58775806427001953
8.50152111053466797 11.4025430679321289 12.7266044616699219
10.119140625 6.80954360961914062 8.28297996520996094
8.33327960968017578 10.2610273361206055 12.3312568664550781
9.04239749908447266 7.6063847541809082 9.84554576873779297
10.8640785217285156 10.9595308303833008 9.70827484130859375
10.2145910263061523 9.2625579833984375 9.93045139312744141
11.3138351440429688 9.59232711791992188 8.84108161926269531
10.205601692199707 9.13621044158935547 9.50512218475341797
10.7923688888549805 11.9226770401000977 10.3668661117553711
9.21374130249023438 9.10684680938720703 10.6906147003173828
8.84259414672851562 10.0693435668945312 11.2807464599609375
10.3972644805908203 10.1302871704101562 9.66783332824707031
10.1984443664550781 10.1221733093261719 9.89967155456542969
10.1750459671020508 8.25771522521972656 9.11751270294189453
8.78080081939697266 10.3808107376098633 11.7803583145141602
9.8995361328125 10.1336755752563477 9.4696197509765625
10.294581413269043 7.9904026985168457 8.94636917114257812
9.84219741821289062 8.49418354034423828 9.64610099792480469
10.300053596496582 12.6519985198974609 11.3788881301879883
9.79982948303222656 7.27172470092773438 8.60626029968261719
9.34959506988525391 10.5417881011962891 11.1644830703735352
10.4799671173095703 8.82257270812988281 9.56292247772216797
10.9182939529418945 9.79964351654052734 9.17351150512695312
10.1870584487915039 10.8349637985229492 10.0751895904541016
9.89442729949951172 11.4379348754882812 10.86175537109375
9.2575531005859375 11.6262655258178711 11.4592046737670898
9.3175506591796875 7.81719255447387695 9.76007461547851562
8.12507915496826172 10.2318181991577148 11.7038974761962891
10.9099769592285156 8.32462215423583984 7.98597526550292969
8.37408828735351562 10.1643867492675781 10.8430728912353516
11.1546192169189453 9.20783329010009766 8.49044895172119141
11.5094833374023438 9.64865970611572266 8.11038875579833984
9.67428493499755859 7.66989469528198242 8.85417556762695312
9.14118385314941406 12.8897905349731445 13.4387493133544922
9.66722965240478516 11.7022371292114258 11.5812959671020508
9.77548122406005859 10.2052822113037109 10.2833099365234375
10.7679729461669922 9.65202808380126953 8.60006237030029297
9.33796310424804688 10.6442022323608398 10.5468130111694336
10.6131296157836914 11.5422525405883789 10.5312442779541016
10.0862131118774414 11.7697696685791016 11.0106849670410156
10.6450052261352539 9.90258693695068359 9.381256103515625
9.93229198455810547 8.59858322143554688 9.3789825439453125
9.60407447814941406 10.6449642181396484 11.4600210189819336
7.71644830703735352 7.75075149536132812 11.0661611557006836
9.73983955383300781 10.4507961273193359 10.5669450759887695
8.90894603729248047 12.5765218734741211 13.4090795516967773
9.84467601776123047 10.936793327331543 10.4409952163696289
10.2783784866333008 12.0534706115722656 10.8780717849731445
10.1286077499389648 6.74395036697387695 8.11276340484619141
9.70236110687255859 10.694488525390625 9.77288341522216797
10.4860239028930664 11.0724506378173828 10.3133373260498047
10.2370014190673828 10.1544818878173828 10.1656150817871094
9.10004329681396484 8.77693367004394531 11.5096654891967773
11.854426383972168 9.16746234893798828 7.42711067199707031
11.9446449279785156 9.27935504913330078 8.06205463409423828
10.4112586975097656 7.9828038215637207 8.76319313049316406
9.79899501800537109 9.74950122833251953 9.20403957366943359
9.95226669311523438 11.4939613342285156 11.1749134063720703
10.7146720886230469 10.8314065933227539 10.2660236358642578
10.0409832000732422 8.69734859466552734 8.82307624816894531
10.1079483032226562 11.3439693450927734 10.6517219543457031
8.55273628234863281 9.64942836761474609 11.0499725341796875
10.4857206344604492 8.61172008514404297 9.01183605194091797
10.100367546081543 9.46494960784912109 9.62458229064941406
10.6254110336303711 11.0605487823486328 9.88952255249023438
10.2052974700927734 11.1924657821655273 10.3367710113525391
10.6030683517456055 11.1635837554931641 10.3314733505249023
9.97225189208984375 9.35405445098876953 9.82719039916992188
11.9025125503540039 11.4684200286865234 8.57009029388427734
10.3235292434692383 12.646209716796875 10.8384132385253906
10.0264625549316406 9.95236778259277344 10.5587100982666016
11.0550861358642578 10.2876338958740234 8.56125450134277344
9.34884548187255859 9.83585834503173828 11.1775684356689453
9.63802528381347656 9.78496837615966797 9.52556419372558594
10.7338066101074219 9.62030792236328125 9.50016021728515625
10.4112920761108398 9.67931175231933594 9.87681007385253906
10.6014614105224609 10.486393928527832 9.91293430328369141
10.9374761581420898 11.7153081893920898 10.2810430526733398
8.90613460540771484 10.4746522903442383 11.2240467071533203
9.95824337005615234 10.4075965881347656 9.34839439392089844
10.4879522323608398 10.4106130599975586 8.90127086639404297
10.0713291168212891 9.777069091796875 10.6499214172363281
9.25079345703125 9.84609603881835938 11.0209817886352539
8.699066162109375 9.42518424987792969 10.900273323059082
10.6637783050537109 9.99852943420410156 9.3220672607421875
8.27932834625244141 11.0340728759765625 11.8653459548950195
10.3773002624511719 9.88369464874267578 8.97735691070556641
9.53328800201416016 14.5767087936401367 12.8913507461547852
10.6582746505737305 9.12545108795166016 9.08610820770263672
8.87530040740966797 12.4412698745727539 12.8496103286743164
10.3565397262573242 10.9462099075317383 10.4271831512451172
7.88351964950561523 8.72877788543701172 11.525090217590332
10.2594404220581055 11.3395547866821289 10.6068248748779297
8.47156906127929688 9.66417407989501953 10.7257356643676758
10.5446338653564453 11.5193033218383789 10.2667675018310547
10.0417442321777344 8.75822925567626953 9.37702274322509766
10.1216707229614258 12.6539373397827148 10.9925880432128906
7.55734586715698242 7.93066167831420898 10.7613344192504883
9.67429351806640625 10.2031278610229492 10.3474225997924805
8.75792884826660156 14.3963394165039062 13.8106880187988281
10.1190347671508789 9.46638774871826172 9.97319221496582031
9.61019992828369141 11.3959817886352539 11.1578006744384766
10.7000741958618164 9.86079883575439453 9.19762706756591797
8.49102115631103516 12.3168973922729492 12.7882146835327148
10.755828857421875 8.75235748291015625 8.12710857391357422
9.21061992645263672 11.2119531631469727 11.2006673812866211
8.18463897705078125 11.6420860290527344 12.386866569519043
9.64039230346679688 10.553466796875 10.9418087005615234
10.7556524276733398 10.4716482162475586 9.96826648712158203
9.93838882446289062 12.5910177230834961 11.9649763107299805
9.92643642425537109 8.79881763458251953 8.79520606994628906
7.46592235565185547 11.8965950012207031 13.7433366775512695
9.12454319000244141 12.6140842437744141 11.7770795822143555
10.1265707015991211 8.51431846618652344 8.59778213500976562
11.1389102935791016 10.4226465225219727 9.14265537261962891
9.20594310760498047 8.50611305236816406 10.0372762680053711
10.2089471817016602 10.0717382431030273 9.93531703948974609
10.2926225662231445 10.268585205078125 9.74091243743896484
10.1503944396972656 10.7931661605834961 9.99109363555908203
9.93458843231201172 8.29571628570556641 9.71490001678466797
10.7868003845214844 8.61405563354492188 8.83393001556396484
10.9024181365966797 10.9436521530151367 9.15142917633056641
8.35761070251464844 10.5463647842407227 11.8886318206787109
10.8846645355224609 11.9170360565185547 10.4713783264160156
11.451359748840332 7.29851675033569336 7.04905414581298828
9.90831661224365234 10.0393133163452148 9.77452278137207031
10.7015361785888672 11.1237850189208984 10.3088874816894531
11.2891702651977539 7.6260981559753418 7.41494178771972656
9.61526775360107422 13.0433130264282227 12.1397056579589844
11.2089548110961914 7.36181068420410156 7.74617671966552734
8.65503025054931641 10.4130754470825195 10.8480806350708008
11.0417861938476562 11.5708675384521484 9.64789009094238281
10.4403324127197266 11.2606382369995117 10.9930124282836914
8.75019550323486328 12.0077056884765625 12.0111961364746094
12.1155405044555664 9.34109783172607422 8.90519809722900391
10.7832393646240234 9.40344715118408203 9.05222320556640625
10.8378162384033203 6.51353836059570312 8.36683464050292969
11.2054338455200195 7.06610250473022461 7.74077558517456055
10.9069929122924805 9.99941635131835938 9.13225650787353516
11.4584445953369141 8.74549102783203125 8.01626110076904297
10.6679935455322266 11.6128263473510742 10.0495548248291016
10.3643770217895508 9.75676345825195312 9.58163833618164062
9.29730224609375 12.6803836822509766 11.8377208709716797
10.4023122787475586 9.04727363586425781 8.53347396850585938
8.76939678192138672 9.54947376251220703 11.1600761413574219
10.7636337280273438 9.04128170013427734 8.36354923248291016
11.821990966796875 10.3890924453735352 9.07683658599853516
8.32469081878662109 8.94641971588134766 11.2095022201538086
10.0311861038208008 10.8871755599975586 10.5614795684814453
9.95809364318847656 8.55164337158203125 8.91587066650390625
11.062037467956543 10.3472843170166016 9.48167133331298828
11.1788673400878906 9.75138378143310547 8.50084781646728516
9.41419506072998047 10.4337186813354492 10.7391958236694336
10.6887540817260742 11.6511039733886719 10.3444480895996094
9.72399139404296875 10.3793582916259766 11.6591014862060547
11.905247688293457 8.14036846160888672 7.12136268615722656
10.6359500885009766 10.7818403244018555 9.1794281005859375
11.1691865921020508 9.21464347839355469 8.84208106994628906
10.8385562896728516 7.33110237121582031 7.05299949645996094
9.73242950439453125 8.57370853424072266 9.91342830657958984
9.99626445770263672 9.23857593536376953 9.52704143524169922
9.98584556579589844 9.83005237579345703 9.94253730773925781
9.2766571044921875 8.02085113525390625 9.18949604034423828
10.1230659484863281 10.0909128189086914 10.4059019088745117
10.6059131622314453 9.96536827087402344 8.66803836822509766
10.7099580764770508 7.87092494964599609 7.98175048828125
12.1478147506713867 8.61487007141113281 6.90663766860961914
10.3278360366821289 11.7171535491943359 10.5289239883422852
10.1032304763793945 9.10964012145996094 9.0782623291015625
10.3490114212036133 9.43218135833740234 8.8877716064453125
9.83490276336669922 10.0028591156005859 9.71633625030517578
10.9039325714111328 10.1733522415161133 9.37564659118652344
10.2538728713989258 10.3528852462768555 10.5787973403930664
10.1939830780029297 12.5016689300537109 11.5280494689941406
10.29144287109375 10.4315652847290039 9.79576683044433594
9.76245880126953125 9.37891483306884766 10.2150354385375977
10.333277702331543 13.7078647613525391 11.9101371765136719
10.25433349609375 11.3967571258544922 10.8142547607421875
7.65486049652099609 12.8882627487182617 12.9235658645629883
11.6793375015258789 13.0395927429199219 9.92054557800292969
10.3179893493652344 7.45868206024169922 7.89175319671630859
10.6144914627075195 8.82549095153808594 9.23821926116943359
10.4145059585571289 9.13432598114013672 9.61986637115478516
9.71050453186035156 8.46483612060546875 9.83821964263916016
9.21230792999267578 10.9876279830932617 11.0809764862060547
12.1794652938842773 7.83463525772094727 6.9994654655456543
8.60047245025634766 10.8215618133544922 11.3174381256103516
9.90416717529296875 11.8045768737792969 10.1995573043823242
9.07086181640625 10.7111234664916992 11.1962347030639648
10.9448966979980469 9.33813953399658203 8.45923423767089844
9.69235134124755859 10.8290796279907227 10.1152267456054688
9.710235595703125 11.4715404510498047 10.2898960113525391
11.572169303894043 8.44551467895507812 7.29871749877929688
8.62112998962402344 12.1821918487548828 12.6066827774047852
10.8815107345581055 11.2786369323730469 9.70429229736328125
10.1306858062744141 11.9219303131103516 10.0526237487792969
8.78860569000244141 10.8388652801513672 11.1109294891357422
11.4974117279052734 9.28997135162353516 7.77938365936279297
11.2761316299438477 7.33278703689575195 7.18407297134399414
10.4491214752197266 8.06201648712158203 9.39937019348144531
9.61321449279785156 11.4395685195922852 11.2330560684204102
9.45389270782470703 11.2146015167236328 10.8414955139160156
8.82224655151367188 10.8482084274291992 11.778437614440918
10.5952920913696289 9.71670818328857422 9.61251544952392578
9.57415199279785156 9.76265716552734375 10.5936107635498047
11.3030405044555664 10.5981035232543945 9.62096881866455078
8.51049900054931641 11.0649385452270508 11.705413818359375
10.8029165267944336 7.3944244384765625 7.58224344253540039
10.8424692153930664 9.68344974517822266 9.37597084045410156
9.66291713714599609 10.5689258575439453 10.4565286636352539
9.45472049713134766 10.3778209686279297 11.6657018661499023
10.2799835205078125 10.5939121246337891 10.0331287384033203
9.17635154724121094 10.6150884628295898 11.4722929000854492
